# .PCD v0.7 - Point Cloud Data file format
VERSION 0.7
FIELDS x y z label
SIZE 4 4 4 4
TYPE F F F U
COUNT 1 1 1 1
WIDTH 1246
HEIGHT 1
VIEWPOINT 0 0 0 1 0 0 0
POINTS 1246
DATA ascii
0.037457965 -0.2985175 0.75029469 88
0.042769484 -0.31105226 0.67575026 88
0.042015497 -0.3105945 0.67881763 88
0.043548368 -0.30985135 0.67758256 88
0.043366879 -0.30873051 0.68063796 88
0.047139544 -0.31064332 0.67982715 88
0.047482144 -0.30870521 0.68117106 88
0.040981974 -0.31074339 0.68284798 88
0.041050911 -0.31026721 0.68823439 88
0.04269328 -0.30880064 0.68538564 88
0.042206865 -0.30825722 0.68917602 88
0.048006169 -0.30801567 0.68605632 88
0.04722923 -0.30754524 0.69057345 88
0.042668931 -0.30753636 0.69459462 88
0.042541549 -0.30659127 0.70060247 88
0.047304247 -0.30706221 0.69490552 88
0.047589887 -0.30659834 0.70084143 88
0.042217623 -0.30556515 0.70591772 88
0.044823617 -0.30525866 0.70760596 88
0.047585219 -0.3057822 0.70517409 88
0.047378611 -0.30530214 0.70789659 88
0.052546378 -0.30787975 0.69522673 88
0.052383184 -0.30663663 0.70078862 88
0.052650888 -0.30588061 0.70594537 88
0.052847322 -0.30539435 0.70842689 88
0.044067603 -0.30490893 0.70078641 88
0.045687735 -0.30490893 0.70078641 88
0.042455021 -0.30421734 0.70699334 88
0.044823617 -0.30427712 0.70760596 88
0.047646023 -0.30482927 0.70509911 88
0.047501124 -0.30431411 0.70775062 88
0.050546706 -0.30491078 0.70528769 88
0.05194727 -0.30436578 0.70806623 88
0.042535953 -0.30533645 0.71313685 88
0.04764038 -0.30545175 0.71432692 88
0.048369076 -0.30522561 0.72144806 88
0.052351605 -0.30550328 0.7142089 88
0.051676292 -0.30505824 0.72105247 88
0.042386424 -0.30408534 0.71492344 88
0.042217415 -0.30363706 0.72084832 88
0.047264546 -0.30422685 0.71524674 88
0.047821969 -0.30393082 0.7211259 88
0.042851623 -0.30317137 0.72411579 88
0.042657159 -0.30281943 0.72947633 88
0.047410969 -0.30310431 0.7233541 88
0.047396831 -0.30277944 0.72940415 88
0.052404486 -0.30424348 0.71538693 88
0.052635472 -0.30331078 0.72117937 88
0.052114077 -0.30293089 0.72714978 88
0.052540276 -0.3016842 0.72840238 88
0.042547222 -0.30157012 0.73614228 88
0.04755808 -0.30159551 0.73549783 88
0.047335468 -0.30104902 0.74131292 88
0.048654594 -0.29975551 0.73586196 88
0.048678361 -0.29995468 0.7414003 88
0.042236716 -0.30126116 0.74392664 88
0.04163719 -0.30048436 0.75042808 88
0.042475499 -0.29929414 0.74408501 88
0.042894229 -0.29857734 0.74994862 88
0.045017578 -0.30103359 0.74321759 88
0.049149863 -0.30009106 0.74858153 88
0.047156896 -0.2989828 0.74446827 88
0.047792677 -0.29820171 0.75009888 88
0.052612156 -0.30128181 0.73488551 88
0.052887727 -0.30089369 0.74129301 88
0.05134787 -0.29958594 0.7354458 88
0.050392389 -0.29995468 0.7414003 88
0.056307681 -0.3013314 0.73805523 88
0.052924547 -0.30002019 0.74326104 88
0.052312847 -0.30036825 0.74927288 88
0.052434381 -0.29900438 0.74312812 88
0.052408949 -0.29883352 0.75064242 88
0.0575292 -0.30105102 0.74354523 88
0.05751536 -0.30039027 0.74932802 88
0.057182033 -0.29932532 0.74423933 88
0.057415411 -0.29887256 0.75043267 88
0.002460409 -0.29803964 0.76012713 88
0.0073755924 -0.29785052 0.75964361 88
0.0024839668 -0.29772097 0.76745445 88
0.0024949447 -0.29717454 0.77087229 88
0.0074499683 -0.29763368 0.76722938 88
0.0074740448 -0.29648834 0.76978195 88
0.012957195 -0.29801551 0.75738114 88
0.011911307 -0.29743838 0.760086 88
0.019951995 -0.29857984 0.75703615 88
0.017206635 -0.2981374 0.7594803 88
0.012640058 -0.29735571 0.76651281 88
0.012271751 -0.29657325 0.76931053 88
0.017358592 -0.29762322 0.7661587 88
0.017437365 -0.29630354 0.76810408 88
0.0028369199 -0.29668856 0.77636027 88
0.0074102045 -0.29609063 0.7755788 88
0.0046719485 -0.29433274 0.77724838 88
0.0078359786 -0.29425797 0.77626127 88
0.012360706 -0.29613319 0.77490789 88
0.012999971 -0.29554927 0.77944171 88
0.017545406 -0.29620636 0.7753098 88
0.014549331 -0.2955949 0.78386539 88
0.017716376 -0.2958037 0.78417355 88
0.011137116 -0.29459468 0.77699131 88
0.012248821 -0.2943545 0.78097785 88
0.018658265 -0.29458529 0.77602023 88
0.012460879 -0.29343635 0.78385329 88
0.017927725 -0.29447877 0.786349 88
0.022754082 -0.29860222 0.75709271 88
0.022469552 -0.29737285 0.75931668 88
0.027727278 -0.30008635 0.75907606 88
0.026267448 -0.29874849 0.75746369 88
0.028154735 -0.29832476 0.75995624 88
0.022325305 -0.29802799 0.76641881 88
0.022388443 -0.29672939 0.7685625 88
0.027276579 -0.29791218 0.76612121 88
0.027402597 -0.29715657 0.76966894 88
0.033590697 -0.29846737 0.75675088 88
0.032233328 -0.29803672 0.75940108 88
0.037456639 -0.29860005 0.75708735 88
0.037542004 -0.29718116 0.75882745 88
0.032239489 -0.29795414 0.76622909 88
0.032366164 -0.2969926 0.76924413 88
0.037814207 -0.29734355 0.76575339 88
0.036577031 -0.296527 0.76803845 88
0.022498386 -0.29659134 0.7762329 88
0.024845513 -0.2963458 0.77876073 88
0.027627273 -0.29744482 0.77599162 88
0.027724667 -0.29633173 0.77872396 88
0.022469468 -0.29573134 0.78381467 88
0.02121737 -0.29521519 0.7911709 88
0.027278952 -0.29590651 0.78444445 88
0.020452328 -0.29458529 0.77602023 88
0.022509849 -0.29408681 0.78522772 88
0.022561066 -0.29416251 0.79077065 88
0.027065463 -0.29408163 0.78528881 88
0.027001718 -0.29342645 0.79105186 88
0.032599133 -0.29697832 0.77477473 88
0.032731205 -0.29602173 0.77790922 88
0.037935164 -0.29659098 0.77480543 88
0.036684394 -0.29599026 0.77782661 88
0.032305561 -0.29582834 0.78503686 88
0.037246637 -0.29593611 0.78496039 88
0.039161861 -0.29497144 0.77703744 88
0.032382526 -0.29434896 0.78689921 88
0.04244367 -0.29815593 0.75863194 88
0.04725631 -0.29858869 0.75705844 88
0.047404032 -0.29741967 0.75943637 88
0.042363897 -0.29687434 0.76597822 88
0.044447139 -0.29690686 0.76902229 88
0.047817174 -0.29788327 0.76604688 88
0.047299903 -0.29695907 0.76915723 88
0.053061135 -0.3004455 0.75998449 88
0.05006979 -0.29866806 0.75725979 88
0.052447747 -0.29822627 0.75913858 88
0.058456656 -0.29828438 0.75522828 88
0.057035405 -0.29768369 0.75832087 88
0.052749891 -0.29774085 0.76568043 88
0.052268535 -0.29689753 0.76899803 88
0.042341612 -0.29667428 0.77473104 88
0.043535907 -0.29611725 0.77816021 88
0.047819749 -0.29677212 0.77483439 88
0.040958278 -0.29497144 0.77703744 88
0.048692673 -0.29430422 0.77433676 88
-0.14230542 -0.29709938 0.81853503 45
-0.14750364 -0.29768088 0.82645392 45
-0.14766806 -0.29725879 0.83168781 45
-0.14264365 -0.29710996 0.8248685 45
-0.14316653 -0.29747024 0.83099419 45
-0.13825849 -0.2983425 0.81987244 45
-0.13287506 -0.30070069 0.82085246 45
-0.1319412 -0.29953983 0.82045114 45
-0.13547388 -0.30033219 0.8253389 45
-0.13586597 -0.30059862 0.83241731 45
-0.13658077 -0.29918897 0.82448316 45
-0.13715655 -0.29904085 0.83094203 45
-0.13389614 -0.30021727 0.825023 45
-0.13234179 -0.29888979 0.82388812 45
-0.13230181 -0.29873326 0.8293758 45
-0.12720682 -0.30022177 0.81879288 45
-0.12693734 -0.29963729 0.81463116 45
-0.12689655 -0.29869133 0.81994092 45
-0.12328708 -0.3010757 0.81292135 45
-0.12255693 -0.29924825 0.81306201 45
-0.12262359 -0.29864037 0.8198958 45
-0.1289648 -0.29863524 0.82276642 45
-0.12771443 -0.29876867 0.82947415 45
-0.12338478 -0.30019784 0.83130747 45
-0.12244393 -0.29871863 0.83040273 45
-0.10287715 -0.30134374 0.79035062 45
-0.10091826 -0.29946396 0.79079843 45
-0.097797081 -0.30082965 0.78518069 45
-0.097759612 -0.30039409 0.78963935 45
-0.09625347 -0.29934901 0.78436583 45
-0.09728384 -0.29926068 0.78937191 45
-0.092368618 -0.30028635 0.78340477 45
-0.094461627 -0.30016184 0.78878891 45
-0.092166886 -0.29882333 0.78488117 45
-0.091839381 -0.29812625 0.79043853 45
-0.087113529 -0.30077472 0.7758261 45
-0.08882796 -0.30028883 0.77778196 45
-0.087629713 -0.29921028 0.77673459 45
-0.087295659 -0.29819024 0.78218496 45
-0.082539774 -0.30109009 0.77613908 45
-0.082387567 -0.30040875 0.77809244 45
-0.081971988 -0.29916784 0.7795105 45
-0.087214202 -0.30000174 0.78266221 45
-0.087309048 -0.29814887 0.78350115 45
-0.087563075 -0.2973491 0.78906751 45
-0.083621539 -0.30009744 0.78291184 45
-0.082836606 -0.29775932 0.78318954 45
-0.082386121 -0.29659423 0.78975278 45
-0.11243576 -0.30171716 0.80086565 45
-0.11002649 -0.29933134 0.80120927 45
-0.11760679 -0.30219942 0.80490607 45
-0.11731248 -0.3010394 0.81153411 45
-0.11695386 -0.29908988 0.81219441 45
-0.11304992 -0.30076951 0.8039403 45
-0.11320136 -0.30091184 0.80978298 45
-0.11137887 -0.29946738 0.80456483 45
-0.11239117 -0.29865423 0.80984968 45
-0.10577165 -0.30073053 0.79706281 45
-0.10864185 -0.30107513 0.7997418 45
-0.10577165 -0.29962492 0.7970627 45
-0.10683141 -0.29890367 0.8003968 45
-0.10237845 -0.30065739 0.79589736 45
-0.102449 -0.2985023 0.79701763 45
-0.10263693 -0.29753461 0.801359 45
-0.10960266 -0.30010253 0.80626702 45
-0.10742228 -0.29823798 0.80536681 45
-0.10835019 -0.29777524 0.80804485 45
-0.10260115 -0.29627481 0.80397344 45
-0.10265017 -0.29633465 0.81023526 45
-0.11930149 -0.30135354 0.81265676 45
-0.11616493 -0.3000612 0.81835508 45
-0.11706255 -0.29888859 0.81516302 45
-0.11793661 -0.29865903 0.81985474 45
-0.11241923 -0.29839802 0.81587708 45
-0.11263249 -0.29769495 0.82017601 45
-0.11621857 -0.29781011 0.82681268 45
-0.11802773 -0.29730555 0.8296746 45
-0.11204461 -0.29719248 0.82562864 45
-0.11259717 -0.29612291 0.82964325 45
-0.11049409 -0.29477835 0.82688737 45
-0.11085926 -0.29446989 0.8325007 45
-0.10716832 -0.29679096 0.81429476 45
-0.10685442 -0.29627547 0.82097572 45
-0.10246034 -0.29557228 0.81353098 45
-0.10272101 -0.2957783 0.81976914 45
-0.108123 -0.29596481 0.82455236 45
-0.10862527 -0.29543045 0.83130485 45
-0.10400647 -0.29525647 0.82395381 45
-0.10188685 -0.29438099 0.81311721 45
-0.10171194 -0.29425529 0.82081163 45
-0.10737193 -0.29440898 0.82554579 45
-0.1071036 -0.29419968 0.83023477 45
-0.10400648 -0.29411355 0.82395381 45
-0.10249595 -0.29328248 0.83023554 45
-0.097779721 -0.30059117 0.79661846 45
-0.097729154 -0.29856956 0.79689544 45
-0.097372882 -0.29786205 0.80149573 45
-0.094026275 -0.30007604 0.79435456 45
-0.092866868 -0.29760435 0.79470938 45
-0.092566468 -0.29732308 0.80078912 45
-0.097701058 -0.29607835 0.80343997 45
-0.097762838 -0.29628709 0.8101052 45
-0.092568383 -0.29629007 0.80401456 45
-0.092586011 -0.29600391 0.81015277 45
-0.092089392 -0.29443356 0.81148875 45
-0.087637693 -0.29664668 0.79304206 45
-0.08764039 -0.29693896 0.79975462 45
-0.082254872 -0.29609254 0.79599428 45
-0.082988448 -0.29597405 0.79938436 45
-0.087621853 -0.29590833 0.80297863 45
-0.087298803 -0.29564619 0.80937922 45
-0.08336319 -0.29568291 0.80371469 45
-0.083883017 -0.29578188 0.80891263 45
-0.081463315 -0.29439807 0.80031502 45
-0.087592803 -0.29417637 0.810606 45
-0.080825299 -0.29424879 0.8055504 45
-0.082382731 -0.29404172 0.80967826 45
-0.097354934 -0.29544941 0.81295347 45
-0.097028859 -0.29550663 0.81919074 45
-0.090310194 -0.29511407 0.81722945 45
-0.093062513 -0.29540712 0.81864041 45
-0.097354926 -0.29432169 0.81295347 45
-0.097697116 -0.29397774 0.82109517 45
-0.090310194 -0.29398045 0.81722945 45
-0.092589006 -0.29378301 0.82041639 45
-0.097600713 -0.29303652 0.82928771 45
-0.092123143 -0.29242501 0.82672167 45
-0.092757411 -0.29114509 0.82999885 45
-0.091521129 -0.28955936 0.83166379 45
-0.089176595 -0.29511407 0.81722945 45
-0.08742591 -0.29409331 0.81675571 45
-0.087610319 -0.29316881 0.82024467 45
-0.082584418 -0.29375654 0.81555867 45
-0.082165569 -0.29236811 0.81891513 45
-0.080163591 -0.28912079 0.82167459 45
-0.087575875 -0.29176721 0.82506412 45
-0.087608956 -0.29049388 0.83103698 45
-0.087438874 -0.28980762 0.82579666 45
-0.087608956 -0.28934112 0.83103698 45
-0.082990415 -0.29155442 0.82348502 45
-0.083643787 -0.29041797 0.8303498 45
-0.082385428 -0.28944162 0.82393992 45
-0.08192414 -0.28868452 0.83075464 45
-0.14132209 -0.29847705 0.83509642 45
-0.14488596 -0.29792905 0.84008378 45
-0.14238647 -0.29998681 0.84368622 45
-0.14233331 -0.29835299 0.8444708 45
-0.14260525 -0.29660383 0.84963989 45
-0.14256887 -0.2956751 0.85412967 45
-0.14045486 -0.29559001 0.85810143 45
-0.14279038 -0.29430413 0.85545582 45
-0.14260086 -0.29365 0.8602677 45
-0.14249572 -0.29316193 0.86532909 45
-0.13862823 -0.30042654 0.8336035 45
-0.13788661 -0.29905877 0.83600616 45
-0.13734302 -0.29841834 0.84146363 45
-0.13237537 -0.29832697 0.83467662 45
-0.13256466 -0.2981739 0.84077436 45
-0.13763238 -0.29755217 0.84563625 45
-0.13747726 -0.29655921 0.84951216 45
-0.13248861 -0.29741612 0.84524989 45
-0.13220181 -0.2965273 0.85067582 45
-0.13127194 -0.29447487 0.85257548 45
-0.1273858 -0.29839286 0.83486092 45
-0.12762409 -0.29843748 0.84151727 45
-0.12239361 -0.29779351 0.83503878 45
-0.12330665 -0.29657328 0.83927369 45
-0.12745072 -0.29701659 0.84476858 45
-0.1280237 -0.29609871 0.85044825 45
-0.12344427 -0.2956256 0.84523922 45
-0.12468781 -0.295396 0.85068709 45
-0.12090755 -0.29418877 0.83902341 45
-0.12563363 -0.29471067 0.84645915 45
-0.12710425 -0.2942138 0.85106027 45
-0.1217534 -0.29374933 0.84514433 45
-0.12214767 -0.29315937 0.85015792 45
-0.13747919 -0.29613444 0.85421407 45
-0.13755949 -0.29586792 0.86025602 45
-0.13373923 -0.29588327 0.85322648 45
-0.13281707 -0.29548937 0.85885739 45
-0.13847654 -0.29576346 0.86557609 45
-0.13819338 -0.29532212 0.87135905 45
-0.13731089 -0.29491463 0.85384864 45
-0.13763158 -0.29460526 0.85947341 45
-0.13373925 -0.29469973 0.85322642 45
-0.13157676 -0.29402298 0.86012894 45
-0.13775358 -0.29428497 0.86413884 45
-0.1375861 -0.29409936 0.87104225 45
-0.13264126 -0.29379451 0.86355722 45
-0.13240619 -0.2929827 0.87039912 45
-0.1272005 -0.29521611 0.85701603 45
-0.1293229 -0.29553851 0.85795194 45
-0.12625694 -0.29327753 0.85598558 45
-0.12777464 -0.29299325 0.86065048 45
-0.1228944 -0.29182282 0.85462385 45
-0.12254676 -0.29078892 0.85942745 45
-0.12189949 -0.28946164 0.8587538 45
-0.12778504 -0.29197219 0.86635119 45
-0.12781404 -0.29130831 0.87092388 45
-0.12625548 -0.2895754 0.86574268 45
-0.1257278 -0.2893351 0.87152904 45
-0.12217201 -0.29025719 0.86348295 45
-0.12319925 -0.29028234 0.87074393 45
-0.12217201 -0.28905943 0.86348295 45
-0.12165947 -0.28837496 0.870094 45
-0.1376527 -0.29352194 0.87560391 45
-0.13643596 -0.29230312 0.88169855 45
-0.13205487 -0.29191741 0.87662441 45
-0.13327108 -0.29137403 0.88043368 45
-0.13160856 -0.28950334 0.88012695 45
-0.13851482 -0.29216573 0.88474101 45
-0.13713226 -0.29072899 0.88858104 45
-0.13760462 -0.28908363 0.89067674 45
-0.13237546 -0.29056892 0.88635576 45
-0.13237546 -0.28933942 0.88635576 45
-0.13242532 -0.28828987 0.8894397 45
-0.12816747 -0.2911059 0.87442726 45
-0.12917398 -0.29043832 0.87852281 45
-0.12679707 -0.28916323 0.87613815 45
-0.12773347 -0.28863817 0.87940675 45
-0.12319212 -0.28798681 0.87355095 45
-0.12232845 -0.28704524 0.87921757 45
-0.12981649 -0.29034665 0.8856777 45
-0.1277184 -0.28782064 0.88488954 45
-0.12560038 -0.28620413 0.8906278 45
-0.12332812 -0.28626665 0.88319749 45
-0.12285326 -0.28610566 0.88980991 45
-0.13772549 -0.29001409 0.89989424 45
-0.13595545 -0.28807631 0.8964538 45
-0.13738503 -0.28802264 0.90055871 45
-0.13213383 -0.28725335 0.89506572 45
-0.13257918 -0.28588539 0.90000308 45
-0.13764726 -0.28760186 0.90539837 45
-0.13794698 -0.28636265 0.90972596 45
-0.1328066 -0.28566259 0.90544522 45
-0.13477871 -0.28551251 0.90807426 45
-0.12783395 -0.28648791 0.89473629 45
-0.12936896 -0.28544632 0.90255463 45
-0.12269723 -0.28562006 0.89432591 45
-0.12253258 -0.28549051 0.90137655 45
-0.12714835 -0.28554538 0.90457243 45
-0.1231854 -0.28533658 0.90618205 45
-0.12066045 -0.28493801 0.88161379 45
-0.12120344 -0.28472537 0.88858318 45
-0.13102424 -0.28485328 0.89674646 45
-0.13603832 -0.28425288 0.90807426 45
-0.13191123 -0.28392321 0.9056834 45
-0.13477871 -0.28425288 0.90807426 45
-0.12768923 -0.28481269 0.8966186 45
-0.12213953 -0.2842893 0.8937884 45
-0.12253258 -0.28465697 0.90137655 45
-0.12746145 -0.28427371 0.90680128 45
-0.12203644 -0.28409091 0.90564632 45
-0.11729721 -0.29594171 0.83448029 45
-0.11968326 -0.29552853 0.83768368 45
-0.11363576 -0.29592884 0.83422786 45
-0.11712001 -0.29415283 0.83597559 45
-0.11766253 -0.29367021 0.84068185 45
-0.11271004 -0.29403284 0.83508718 45
-0.11215661 -0.29231262 0.84038752 45
-0.11713368 -0.29244047 0.84442455 45
-0.1170446 -0.29199934 0.85020047 45
-0.11517527 -0.28931397 0.85015231 45
-0.11283141 -0.29112139 0.8458426 45
-0.113996 -0.29049322 0.85015231 45
-0.11089829 -0.28935081 0.84452331 45
-0.11204779 -0.2891435 0.84878677 45
-0.10730978 -0.29319674 0.83408326 45
-0.10774268 -0.29176363 0.83907676 45
-0.10555109 -0.28987741 0.83926469 45
-0.10247482 -0.29195458 0.83632171 45
-0.10229341 -0.29060459 0.83800453 45
-0.10229341 -0.28944221 0.83800459 45
-0.10773654 -0.29041973 0.84422523 45
-0.10773654 -0.2892487 0.84422523 45
-0.10697087 -0.28872749 0.84901291 45
-0.10280807 -0.29029641 0.84301728 45
-0.10241257 -0.28864157 0.84466481 45
-0.1024104 -0.28792813 0.85186708 45
-0.11819115 -0.29103687 0.85347605 45
-0.11763106 -0.29089668 0.85947436 45
-0.11714027 -0.28989258 0.85301161 45
-0.11763106 -0.28970447 0.85947436 45
-0.11475715 -0.29066518 0.85879016 45
-0.11189839 -0.28903672 0.85514694 45
-0.11227861 -0.28836364 0.8599667 45
-0.1172953 -0.29004669 0.86285669 45
-0.11698602 -0.28867394 0.86352783 45
-0.11774263 -0.28767985 0.8696968 45
-0.11286058 -0.2877523 0.86555588 45
-0.11247606 -0.2864106 0.86876982 45
-0.10751422 -0.288156 0.85488486 45
-0.1082667 -0.28752145 0.8577038 45
-0.10252612 -0.28699139 0.85612279 45
-0.10194153 -0.28631231 0.86122423 45
-0.10760375 -0.28672263 0.86533678 45
-0.10723387 -0.28574198 0.87081885 45
-0.10352622 -0.28630272 0.86397117 45
-0.10222039 -0.2853314 0.87037915 45
-0.097075179 -0.29132989 0.83554101 45
-0.098427176 -0.2906307 0.83807981 45
-0.096030518 -0.28925321 0.83745742 45
-0.098427184 -0.2894682 0.83807987 45
-0.09422937 -0.29079595 0.83522141 45
-0.092104077 -0.28870091 0.83394581 45
-0.092573315 -0.28899834 0.84122419 45
-0.097416192 -0.29030108 0.84274763 45
-0.097636059 -0.28861064 0.84464812 45
-0.09756574 -0.28758273 0.85084516 45
-0.092434838 -0.28744507 0.8435142 45
-0.092484757 -0.28768671 0.85115278 45
-0.087405495 -0.28840035 0.83275831 45
-0.087079018 -0.28822753 0.8398307 45
-0.08451324 -0.28904298 0.83461422 45
-0.082416646 -0.28767914 0.8407827 45
-0.087305322 -0.28713489 0.8445738 45
-0.087745629 -0.28659657 0.84908932 45
-0.082553804 -0.28600359 0.84617317 45
-0.082328677 -0.28501481 0.84788734 45
-0.097230017 -0.28654981 0.85480535 45
-0.098013774 -0.28647158 0.86170328 45
-0.092481159 -0.28653449 0.85475957 45
-0.092920296 -0.28590679 0.85881013 45
-0.098544404 -0.28556222 0.86425716 45
-0.088179015 -0.28567079 0.85425037 45
-0.082311578 -0.28532088 0.85586137 45
-0.11662092 -0.28628805 0.87576771 45
-0.11797205 -0.28625387 0.87981647 45
-0.11250891 -0.2861279 0.87527764 45
-0.11259355 -0.28563038 0.87972909 45
-0.11748681 -0.28591213 0.88844085 45
-0.11269566 -0.28578708 0.88859993 45
-0.10868087 -0.28604481 0.87378782 45
-0.10923003 -0.28545988 0.87820297 45
-0.10844886 -0.28524095 0.88508344 45
-0.1172993 -0.28540048 0.89326805 45
-0.11710097 -0.28528967 0.9003666 45
-0.11282795 -0.28529391 0.89478844 45
-0.11361267 -0.28548825 0.90005547 45
-0.11679523 -0.28508082 0.90536982 45
-0.1099398 -0.28501371 0.89725149 45
-0.10572678 -0.2847414 0.86613619 45
-0.10605373 -0.28428853 0.87211823 45
-0.10212401 -0.28449994 0.86429673 45
-0.10222039 -0.28412405 0.87037903 45
-0.085987568 -0.28426936 0.84917402 45
-0.082328677 -0.28383866 0.84788728 45
-0.095560364 -0.28389391 0.8611359 45
-0.092515178 -0.28411117 0.86059052 45
-0.098117121 -0.28441939 0.86411506 45
-0.097385719 -0.28330049 0.87033057 45
-0.091038957 -0.28354424 0.86737436 45
-0.092953801 -0.28298536 0.87028748 45
-0.087503962 -0.28428581 0.85631955 45
-0.087616473 -0.2839576 0.86132926 45
-0.082311578 -0.28413367 0.85586137 45
-0.082818568 -0.28389111 0.86112738 45
-0.08733061 -0.28348288 0.86718667 45
-0.087796234 -0.28247628 0.87044197 45
-0.082569204 -0.28338072 0.86687398 45
-0.082736678 -0.28227901 0.87063348 45
-0.11730695 -0.28471217 0.88091493 45
-0.11178905 -0.28434694 0.87915677 45
-0.1174868 -0.28467977 0.88844085 45
-0.11165348 -0.28440908 0.88888121 45
-0.10729525 -0.28415051 0.87567151 45
-0.10923003 -0.28424171 0.87820297 45
-0.10268842 -0.2834028 0.87436205 45
-0.1009508 -0.28290644 0.88036585 45
-0.10687593 -0.28399134 0.8842513 45
-0.10776398 -0.28380337 0.88955671 45
-0.1027627 -0.28304988 0.88445371 45
-0.10225186 -0.28242722 0.8917048 45
-0.11729929 -0.28416145 0.89326805 45
-0.11738819 -0.28431317 0.90028787 45
-0.11185445 -0.28410557 0.89551693 45
-0.11361267 -0.28423974 0.90005547 45
-0.11718821 -0.28407255 0.90498209 45
-0.11721473 -0.28376138 0.91189182 45
-0.11193863 -0.28334421 0.90479672 45
-0.11207619 -0.28229898 0.91125798 45
-0.10757282 -0.28368145 0.89581883 45
-0.10729237 -0.28236899 0.8993988 45
-0.1028632 -0.28162861 0.89522988 45
-0.10112995 -0.28050032 0.9000749 45
-0.10075469 -0.279553 0.89305997 45
-0.10112994 -0.27925181 0.90007478 45
-0.10742589 -0.28175917 0.90609211 45
-0.10808945 -0.2809484 0.90961021 45
-0.10572369 -0.2794126 0.9073543 45
-0.10808945 -0.27968669 0.90961009 45
-0.10408267 -0.28114793 0.90403271 45
-0.10201224 -0.27914667 0.90529186 45
-0.10235358 -0.2784186 0.91096568 45
-0.09771426 -0.28296489 0.88054776 45
-0.09327469 -0.28305438 0.87328702 45
-0.092396028 -0.28231975 0.88108188 45
-0.097068854 -0.28196537 0.88350016 45
-0.097624667 -0.28139213 0.88956785 45
-0.096838519 -0.27938938 0.89122093 45
-0.092853203 -0.28167462 0.89077592 45
-0.093646407 -0.27928907 0.89221686 45
-0.087217346 -0.2823402 0.87734145 45
-0.089141808 -0.28209752 0.88134223 45
-0.082495496 -0.28241947 0.87704754 45
-0.082311913 -0.28156966 0.88127804 45
-0.08657416 -0.28218332 0.88319856 45
-0.087372914 -0.28230938 0.89133275 45
-0.08222834 -0.28162777 0.88918084 45
-0.099515915 -0.28079176 0.89305997 45
-0.097069792 -0.28074878 0.89991856 45
-0.099515915 -0.279553 0.89305997 45
-0.09753906 -0.27953175 0.89975828 45
-0.091454312 -0.28098407 0.89498776 45
-0.092545427 -0.28097472 0.90159708 45
-0.09254542 -0.27972409 0.90159708 45
-0.097961195 -0.28006819 0.90540481 45
-0.097351678 -0.27881396 0.9050402 45
-0.097324006 -0.27848747 0.91119087 45
-0.092791319 -0.27879176 0.90398079 45
-0.092383631 -0.27699471 0.91006982 45
-0.087796681 -0.28119484 0.89565915 45
-0.087303862 -0.28100479 0.90169352 45
-0.087303862 -0.27975401 0.90169352 45
-0.082819454 -0.28094685 0.89385664 45
-0.08243838 -0.28062156 0.90046382 45
-0.082231924 -0.27975097 0.89369249 45
-0.082438372 -0.27937245 0.90046376 45
-0.088978797 -0.28113958 0.90346652 45
-0.087770194 -0.27877298 0.90392017 45
-0.087492898 -0.27677742 0.90973252 45
-0.082719259 -0.27865729 0.90354472 45
-0.072236784 -0.29824591 0.7713564 45
-0.067883946 -0.29851568 0.77032954 45
-0.062357567 -0.2974394 0.77066904 45
-0.077471934 -0.29877084 0.77517766 45
-0.077556156 -0.29723263 0.78014767 45
-0.072047539 -0.29729369 0.7765376 45
-0.073065452 -0.29651585 0.7791242 45
-0.07707829 -0.29631403 0.78632092 45
-0.0780228 -0.29590225 0.78975242 45
-0.072363816 -0.29571104 0.7850641 45
-0.073972642 -0.29552618 0.78809804 45
-0.071651012 -0.29488534 0.77870762 45
-0.076283276 -0.29454833 0.78938371 45
-0.07164456 -0.29432404 0.78594071 45
-0.073972642 -0.294433 0.78809804 45
-0.067242905 -0.29749629 0.77519792 45
-0.067373656 -0.29606661 0.779212 45
-0.063079298 -0.29658797 0.77598912 45
-0.060425002 -0.29565093 0.77787989 45
-0.06775663 -0.29601187 0.78541863 45
-0.067181066 -0.2957432 0.78965044 45
-0.062760182 -0.29602426 0.78458911 45
-0.063664816 -0.29556745 0.78859758 45
-0.06291233 -0.29442972 0.77750444 45
-0.060425002 -0.29457188 0.77787989 45
-0.069356784 -0.2944923 0.78534555 45
-0.067181073 -0.29464781 0.78965038 45
-0.061974801 -0.29451591 0.78525674 45
-0.06325572 -0.29441065 0.78817779 45
-0.052318096 -0.29860824 0.76974159 45
-0.04711898 -0.29821742 0.771034 45
-0.057550285 -0.29764521 0.77465063 45
-0.057093959 -0.2970275 0.77970695 45
-0.052362442 -0.2975179 0.77478743 45
-0.052775979 -0.29631346 0.7794888 45
-0.057628408 -0.29592815 0.78452688 45
-0.052545417 -0.2957032 0.78373814 45
-0.059345983 -0.29457188 0.77787989 45
-0.050773311 -0.29491732 0.77879208 45
-0.057758071 -0.29405776 0.78525913 45
-0.05744195 -0.29378968 0.79127246 45
-0.052620355 -0.29394871 0.78486055 45
-0.052301992 -0.29369986 0.79103059 45
-0.048067179 -0.29688227 0.77515107 45
-0.047581885 -0.29604933 0.77914715 45
-0.042642768 -0.29635656 0.77502233 45
-0.042514127 -0.29582396 0.77958792 45
-0.047608547 -0.29564583 0.7846576 45
-0.043421339 -0.29541644 0.78394282 45
-0.047465377 -0.29494861 0.7788747 45
-0.042114019 -0.29463848 0.78086609 45
-0.047536209 -0.2942414 0.78580564 45
-0.042755421 -0.29390925 0.78546041 45
-0.042483173 -0.29408368 0.79206455 45
-0.078063987 -0.29569066 0.79589754 45
-0.078353517 -0.29530275 0.79932952 45
-0.072359368 -0.29568169 0.79438972 45
-0.077438392 -0.2952351 0.80519295 45
-0.076222174 -0.29452351 0.79483294 45
-0.077365287 -0.29420644 0.79893357 45
-0.07227546 -0.29404536 0.79574299 45
-0.071959548 -0.29355535 0.8014248 45
-0.077438392 -0.2941182 0.80519295 45
-0.077407479 -0.29354978 0.80875552 45
-0.072564088 -0.29307738 0.80482036 45
-0.073975779 -0.29328784 0.80803376 45
-0.067348622 -0.29589376 0.79594839 45
-0.062807947 -0.29542738 0.79436469 45
-0.063250661 -0.29504544 0.80467564 45
-0.067590758 -0.29401433 0.79672027 45
-0.067800015 -0.29349467 0.80125988 45
-0.062444218 -0.29389575 0.79596716 45
-0.060856219 -0.29351994 0.80253929 45
-0.067381278 -0.29318112 0.8051073 45
-0.066145279 -0.2933566 0.80822319 45
-0.062850252 -0.29317304 0.80614048 45
-0.061557349 -0.29239741 0.8117854 45
-0.077384271 -0.29292464 0.81639522 45
-0.077776588 -0.29132453 0.82054549 45
-0.078263991 -0.28912085 0.82167441 45
-0.072495326 -0.29226872 0.81432712 45
-0.072646938 -0.29122666 0.82118487 45
-0.076114297 -0.29037601 0.82307869 45
-0.076371722 -0.29051957 0.83001256 45
-0.076114297 -0.28923431 0.82307869 45
-0.078123249 -0.28888053 0.8302713 45
-0.072529458 -0.29088339 0.82451934 45
-0.072681718 -0.29072776 0.83170605 45
-0.073107578 -0.28948364 0.82460237 45
-0.072681718 -0.28957412 0.83170605 45
-0.067428425 -0.29231238 0.81469154 45
-0.067639798 -0.29145437 0.82182682 45
-0.062864155 -0.29154682 0.8141284 45
-0.062586464 -0.29093289 0.82035625 45
-0.067899771 -0.29062116 0.82456011 45
-0.067662224 -0.29064086 0.83145738 45
-0.066978022 -0.28939289 0.82396424 45
-0.067662217 -0.28948754 0.83145744 45
-0.062390219 -0.29026833 0.82277346 45
-0.0627767 -0.29036596 0.83058679 45
-0.062390219 -0.28912702 0.8227734 45
-0.062285252 -0.2891551 0.83022743 45
-0.050961461 -0.29498133 0.80450076 45
-0.057663791 -0.29272029 0.79432744 45
-0.057388313 -0.29286227 0.80074108 45
-0.05293411 -0.29298413 0.79504359 45
-0.052887984 -0.29326856 0.79983532 45
-0.05772204 -0.29233605 0.80541164 45
-0.05745944 -0.29255658 0.81222743 45
-0.052211501 -0.29308856 0.80508637 45
-0.052210022 -0.29259983 0.81234741 45
-0.047324903 -0.29532075 0.79342014 45
-0.046896968 -0.29388028 0.79479533 45
-0.047727294 -0.29362372 0.80022985 45
-0.04234419 -0.29346207 0.79634064 45
-0.042381529 -0.29320902 0.80168903 45
-0.047981739 -0.2925379 0.80443114 45
-0.047633346 -0.29216692 0.81114531 45
-0.042961452 -0.29227307 0.80447096 45
-0.042324536 -0.29177833 0.8100667 45
-0.057726901 -0.2916593 0.81602114 45
-0.058130931 -0.29103604 0.82171983 45
-0.05818525 -0.2890248 0.82248247 45
-0.052714396 -0.29186633 0.81581163 45
-0.050528329 -0.29139268 0.82165289 45
-0.055545084 -0.29142144 0.82280701 45
-0.057862401 -0.29007918 0.82875425 45
-0.055551402 -0.2891717 0.82290053 45
-0.056946188 -0.28865042 0.829521 45
-0.052740742 -0.2914612 0.82331049 45
-0.050995793 -0.29025111 0.82924557 45
-0.052624941 -0.28921387 0.82311922 45
-0.05272283 -0.28863522 0.83030277 45
-0.047691982 -0.29134119 0.8147105 45
-0.047634181 -0.29105091 0.82002199 45
-0.0462582 -0.28995994 0.81337118 45
-0.046685185 -0.28921571 0.8208679 45
-0.042244751 -0.29083082 0.81304604 45
-0.042387072 -0.2906566 0.81851023 45
-0.043214384 -0.28972426 0.81270999 45
-0.042491999 -0.28909966 0.82053876 45
-0.049468122 -0.29033983 0.82297611 45
-0.048269585 -0.29000029 0.82852894 45
-0.049468122 -0.28919828 0.82297611 45
-0.047875516 -0.28877324 0.8296324 45
-0.041404881 -0.29021698 0.82914799 45
-0.042799108 -0.289096 0.82864994 45
-0.037817966 -0.29691085 0.77647179 45
-0.037666943 -0.2962983 0.77970892 45
-0.032634541 -0.29658318 0.77561498 45
-0.032771084 -0.29588482 0.77885062 45
-0.0375547 -0.29552165 0.78452605 45
-0.035692774 -0.29537591 0.78769732 45
-0.032060802 -0.29581347 0.7846331 45
-0.033149548 -0.29543233 0.78784776 45
-0.039961815 -0.29485339 0.77862328 45
-0.032767046 -0.2949034 0.77875531 45
-0.037843853 -0.29425806 0.78563285 45
-0.037862767 -0.29404813 0.79093593 45
-0.031651773 -0.29451859 0.78523862 45
-0.033149544 -0.29433951 0.78784788 45
-0.027649105 -0.29696223 0.77660644 45
-0.0279711 -0.29568487 0.77847093 45
-0.022592831 -0.29656234 0.7755602 45
-0.022690596 -0.29558203 0.77895063 45
-0.027802998 -0.29551029 0.78377765 45
-0.02182192 -0.29544571 0.78484547 45
-0.026606807 -0.29447263 0.77761781 45
-0.022731844 -0.29445004 0.78036714 45
-0.027138596 -0.29393125 0.78508604 45
-0.022489313 -0.29394013 0.78580737 45
-0.017792411 -0.29597664 0.77892673 45
-0.01078927 -0.29562557 0.7778132 45
-0.017850159 -0.29570109 0.78531218 45
-0.016038952 -0.29562703 0.78836703 45
-0.012713676 -0.29605684 0.78563827 45
-0.012901273 -0.29559672 0.7889939 45
-0.017280752 -0.29485503 0.77862763 45
-0.01078927 -0.29454666 0.77781326 45
-0.018197566 -0.29407483 0.78713942 45
-0.016038952 -0.29453349 0.78836703 45
-0.012617821 -0.29450601 0.78868419 45
-0.008272104 -0.29564285 0.77785867 45
-0.007627992 -0.2957356 0.78552854 45
-0.0076519363 -0.29547766 0.7879687 45
-0.0029480646 -0.29583007 0.78455544 45
-0.0029138681 -0.29539707 0.78775388 45
-0.00035980556 -0.29468074 0.77816737 45
-0.0076404661 -0.29397604 0.78687483 45
-0.0076519363 -0.29438466 0.78796875 45
-0.00090664165 -0.29435414 0.78424937 45
-0.002186676 -0.29420805 0.78912961 45
-0.03591536 -0.29501906 0.79260957 45
-0.032894291 -0.29531139 0.79398715 45
-0.03728196 -0.2937268 0.79615474 45
-0.037110008 -0.29307869 0.80057615 45
-0.032402623 -0.29354322 0.79477561 45
-0.032256812 -0.29327732 0.80187589 45
-0.037619062 -0.29238495 0.80554652 45
-0.037506565 -0.29217851 0.81117749 45
-0.0323717 -0.29208273 0.80471385 45
-0.032643516 -0.2922886 0.81148326 45
-0.027503403 -0.29520911 0.79312021 45
-0.022384357 -0.29539564 0.79362124 45
-0.027559878 -0.29361331 0.79476047 45
-0.029290415 -0.29327494 0.80186933 45
-0.022426594 -0.29374322 0.79511166 45
-0.027350426 -0.29294348 0.80429542 45
-0.027774196 -0.29238784 0.81175876 45
-0.022702487 -0.29326549 0.8049022 45
-0.021414781 -0.29266867 0.8125385 45
-0.037318081 -0.29138803 0.81526232 45
-0.037493069 -0.29085964 0.81908184 45
-0.038421694 -0.28943422 0.82068175 45
-0.032578487 -0.29121825 0.81452399 45
-0.032284729 -0.29079071 0.82033598 45
-0.030835256 -0.28992659 0.81327766 45
-0.03168878 -0.28929645 0.82118189 45
-0.036333583 -0.29044384 0.82370311 45
-0.037578601 -0.29028061 0.82932979 45
-0.036713321 -0.2893028 0.82342857 45
-0.037578601 -0.28913021 0.82932979 45
-0.033906851 -0.29068458 0.82395333 45
-0.032591544 -0.29024693 0.82923353 45
-0.033906847 -0.28954169 0.82395333 45
-0.032043461 -0.28877774 0.8299734 45
-0.02696451 -0.29147941 0.81376326 45
-0.027565587 -0.29063472 0.82005441 45
-0.027826101 -0.2899178 0.81325293 45
-0.027475379 -0.28924361 0.82111979 45
-0.022985855 -0.29203591 0.81496763 45
-0.022386355 -0.29099035 0.82062095 45
-0.024685211 -0.28925827 0.82135075 45
-0.027581567 -0.28998935 0.82849783 45
-0.028121671 -0.28849444 0.82986987 45
-0.021724056 -0.29055166 0.82429725 45
-0.02224076 -0.29047003 0.83066922 45
-0.022477053 -0.28941596 0.82395715 45
-0.023110377 -0.28931496 0.83030051 45
-0.016975468 -0.29538697 0.79384476 45
-0.012477224 -0.29540607 0.79364926 45
-0.017356658 -0.29392719 0.79572785 45
-0.015932523 -0.29308435 0.80134821 45
-0.012491992 -0.2935462 0.79457718 45
-0.012594636 -0.29300669 0.80113596 45
-0.017883489 -0.29272762 0.80425858 45
-0.017597381 -0.29165635 0.80972791 45
-0.012269156 -0.29182839 0.80401301 45
-0.012125935 -0.29136172 0.810592 45
-0.011642404 -0.28955784 0.81224328 45
-0.0077014184 -0.29524413 0.79321414 45
-0.0033024028 -0.29533529 0.7934593 45
-0.0077054398 -0.29319605 0.79362768 45
-0.0077739684 -0.29282615 0.80064219 45
-0.0028074458 -0.2933037 0.79430509 45
-0.0029642137 -0.29316404 0.80156612 45
-0.0074232901 -0.29136184 0.80272728 45
-0.0072253291 -0.29172194 0.81085795 45
-0.0060105626 -0.28963399 0.81245685 45
-0.0023246242 -0.2923314 0.80463177 45
-0.0026263536 -0.29152903 0.81145889 45
-0.004132262 -0.28963399 0.81245685 45
-0.017795127 -0.29084563 0.81363952 45
-0.017304944 -0.2909146 0.82073367 45
-0.01541032 -0.2897892 0.8128922 45
-0.015967127 -0.28892899 0.82220978 45
-0.014282735 -0.2909168 0.8128922 45
-0.01278933 -0.29082236 0.81951165 45
-0.014282735 -0.2897892 0.8128922 45
-0.012437563 -0.28927165 0.82107025 45
-0.018310109 -0.29067037 0.82499427 45
-0.018049575 -0.29043525 0.8305037 45
-0.018310109 -0.28952599 0.82499427 45
-0.016657431 -0.28907573 0.83138108 45
-0.012358911 -0.29019344 0.828807 45
-0.012403633 -0.28900376 0.83104253 45
-0.0082720788 -0.2910271 0.81320053 45
-0.0074999961 -0.2906619 0.81916565 45
-0.0082720798 -0.28989908 0.81320053 45
-0.0091072293 -0.28953338 0.82069188 45
-0.0022356526 -0.29064485 0.81848007 45
-0.0015196999 -0.28950283 0.82168055 45
-0.0066229948 -0.29056963 0.82319593 45
-0.0076740738 -0.2908558 0.82987684 45
-0.0068515097 -0.28966188 0.82321215 45
-0.007523661 -0.28914914 0.83143443 45
-0.0041866978 -0.29078743 0.82316595 45
-0.003109592 -0.29069194 0.82880241 45
-0.0041866978 -0.28964558 0.82316595 45
-0.0025715404 -0.28893653 0.83014619 45
-0.076087393 -0.29005903 0.83531755 45
-0.076404169 -0.288822 0.83417892 45
-0.077580221 -0.28773227 0.84119809 45
-0.072495259 -0.28882268 0.83397794 45
-0.072233394 -0.28819975 0.84041059 45
-0.077936798 -0.28629187 0.84702617 45
-0.076717727 -0.28604242 0.85016608 45
-0.073286787 -0.28729817 0.84308338 45
-0.072551526 -0.28652596 0.84983653 45
-0.067059837 -0.28834051 0.83407658 45
-0.067841642 -0.28696436 0.83937299 45
-0.062894113 -0.28822407 0.83448571 45
-0.062314868 -0.28726137 0.8402378 45
-0.06654314 -0.28613549 0.8465634 45
-0.068264395 -0.28602785 0.84994364 45
-0.062828526 -0.28643391 0.84606284 45
-0.061428141 -0.28602338 0.84904629 45
-0.077623069 -0.28554305 0.85652786 45
-0.072623603 -0.28560922 0.85672635 45
-0.07183063 -0.28573513 0.85829437 45
-0.068117499 -0.28553846 0.8565141 45
-0.058534835 -0.28843853 0.83286881 45
-0.057146717 -0.28806365 0.84077096 45
-0.052759539 -0.28844449 0.83288604 45
-0.052887823 -0.28818086 0.84035611 45
-0.05886972 -0.28733286 0.84318519 45
-0.057341043 -0.28630993 0.84940892 45
-0.051837776 -0.28725225 0.84294838 45
-0.0526709 -0.28654495 0.85010648 45
-0.046590928 -0.28840178 0.83276278 45
-0.047392987 -0.2886306 0.84015363 45
-0.042370781 -0.28851005 0.83307534 45
-0.04209337 -0.28792205 0.84035611 45
-0.047578458 -0.28742397 0.84345251 45
-0.047572773 -0.28740713 0.85032588 45
-0.043704022 -0.28758791 0.84393364 45
-0.04214159 -0.28673977 0.84980839 45
-0.05815661 -0.28524503 0.85563385 45
-0.05552128 -0.28553802 0.85770237 45
-0.050098155 -0.28599343 0.8531456 45
-0.052191775 -0.2857585 0.8588776 45
-0.056518149 -0.28499576 0.86690992 45
-0.050948571 -0.28523174 0.8676278 45
-0.047156431 -0.28590709 0.8534795 45
-0.047894951 -0.28585061 0.86026084 45
-0.042952023 -0.28602916 0.85583246 45
-0.044536993 -0.28511631 0.86001897 45
-0.048251607 -0.28548864 0.86963224 45
-0.077720545 -0.2843703 0.84967142 45
-0.072436169 -0.28462884 0.8514238 45
-0.067376301 -0.28450236 0.85070992 45
-0.062869877 -0.28422117 0.84935015 45
-0.077623062 -0.28435493 0.85652786 45
-0.077515088 -0.28342327 0.85970825 45
-0.072623603 -0.28442085 0.85672635 45
-0.072316162 -0.28347152 0.85960138 45
-0.078194521 -0.28350651 0.86725897 45
-0.076693505 -0.2830379 0.86993009 45
-0.071357645 -0.28342411 0.86700732 45
-0.072889894 -0.28285107 0.86935526 45
-0.067016207 -0.28416118 0.85543454 45
-0.06751059 -0.28314292 0.85885799 45
-0.062687196 -0.28336707 0.85561621 45
-0.06073482 -0.28342915 0.85852206 45
-0.067367882 -0.28316262 0.86526608 45
-0.067396849 -0.2824716 0.86915505 45
-0.062125895 -0.28316987 0.86448157 45
-0.062710464 -0.28260258 0.86941266 45
-0.057473604 -0.28461391 0.8513791 45
-0.052797168 -0.28486821 0.85213977 45
-0.05815661 -0.28405815 0.85563385 45
-0.057349704 -0.28377354 0.85911471 45
-0.052700009 -0.28428733 0.86022043 45
-0.057710901 -0.28375366 0.86571038 45
-0.057523541 -0.28278762 0.86998194 45
-0.053660076 -0.28391787 0.86606723 45
-0.052202493 -0.28317556 0.86941218 45
-0.047918782 -0.28442934 0.86166137 45
-0.041597188 -0.28484169 0.85680068 45
-0.042282529 -0.28384969 0.85884655 45
-0.045681674 -0.28410801 0.86664724 45
-0.047665168 -0.28338578 0.87092268 45
-0.042397562 -0.28357872 0.86503273 45
-0.043039199 -0.28277159 0.86993241 45
-0.077469498 -0.28270406 0.87721169 45
-0.077343479 -0.28142419 0.8797332 45
-0.072118148 -0.28239194 0.87624353 45
-0.072461165 -0.2812959 0.88042134 45
-0.077197902 -0.28128022 0.88808358 45
-0.072268315 -0.2812728 0.88805985 45
-0.067178212 -0.28206763 0.87523693 45
-0.06756264 -0.28124154 0.88025081 45
-0.062401697 -0.28243369 0.87637275 45
-0.062730946 -0.28147438 0.8809799 45
-0.067227259 -0.28132063 0.88873148 45
-0.06595917 -0.27950203 0.89158016 45
-0.061923102 -0.28090838 0.88690937 45
-0.063182384 -0.28055274 0.88925064 45
-0.062540241 -0.27895889 0.88984746 45
-0.077608377 -0.28073099 0.89317012 45
-0.077622175 -0.28062662 0.90035892 45
-0.077684268 -0.27944827 0.89272547 45
-0.077122338 -0.27940997 0.90020162 45
-0.072653919 -0.28070924 0.89279729 45
-0.072018594 -0.28079292 0.9003464 45
-0.072653919 -0.27947077 0.89279723 45
-0.072733298 -0.27953455 0.89991349 45
-0.077893004 -0.28016219 0.90570873 45
-0.077825025 -0.27884099 0.90491647 45
-0.075860791 -0.27857769 0.91148609 45
-0.072713085 -0.27873537 0.9037981 45
-0.072468862 -0.27849907 0.91122884 45
-0.068519063 -0.28110909 0.89450812 45
-0.067814514 -0.28060901 0.89975762 45
-0.069042832 -0.27989221 0.89414364 45
-0.06662564 -0.27887845 0.89928776 45
-0.062127095 -0.27874446 0.89576977 45
-0.06252151 -0.27801454 0.90146106 45
-0.068093963 -0.27863815 0.90348268 45
-0.067355931 -0.27825913 0.91044372 45
-0.062175937 -0.27768937 0.90857953 45
-0.057562478 -0.28253946 0.87670088 45
-0.057793871 -0.28123793 0.88023955 45
-0.053012572 -0.28285068 0.87516171 45
-0.052577052 -0.28249773 0.87994462 45
-0.058625061 -0.28082636 0.8866505 45
-0.056928933 -0.28114569 0.88895845 45
-0.058864441 -0.27909157 0.89027077 45
-0.051018167 -0.28202844 0.88271385 45
-0.052645002 -0.2817347 0.88951832 45
-0.046250522 -0.28277683 0.87743741 45
-0.047440637 -0.28226262 0.88126528 45
-0.042549949 -0.28292426 0.87639207 45
-0.042453203 -0.28249416 0.8811152 45
-0.04941988 -0.28222427 0.88332683 45
-0.047681786 -0.28156382 0.88897872 45
-0.041875016 -0.28144458 0.88570195 45
-0.042643413 -0.28073916 0.89027834 45
-0.042202365 -0.27924177 0.89086956 45
-0.056621149 -0.28103933 0.89384717 45
-0.056523032 -0.28053534 0.8988536 45
-0.058102343 -0.2791881 0.89542431 45
-0.056957375 -0.27877474 0.90007538 45
-0.052525662 -0.28072742 0.89450485 45
-0.053982794 -0.28029525 0.8980844 45
-0.052066393 -0.27921277 0.89576054 45
-0.052776184 -0.27815697 0.9006989 45
-0.057658788 -0.27868322 0.90362889 45
-0.057178617 -0.27790409 0.90928215 45
-0.052514084 -0.277693 0.90859157 45
-0.048020169 -0.28077406 0.89351106 45
-0.046974175 -0.28059706 0.89905131 45
-0.048275001 -0.27940583 0.89424682 45
-0.047577269 -0.27902469 0.89955205 45
-0.044990622 -0.28067544 0.89268994 45
-0.042388499 -0.28051248 0.89878035 45
-0.044990622 -0.27943715 0.89268994 45
-0.042388499 -0.27926576 0.89878029 45
-0.04716992 -0.27842909 0.90280473 45
-0.047272053 -0.27732679 0.91015238 45
-0.042602312 -0.27858621 0.90331435 45
-0.043155793 -0.27767128 0.91058969 45
-0.036690548 -0.29004842 0.83528703 45
-0.037424527 -0.28864664 0.83358145 45
-0.037704431 -0.28784308 0.84069461 45
-0.033131029 -0.28854623 0.83317971 45
-0.032679357 -0.28905296 0.84138298 45
-0.035513427 -0.28761974 0.84402698 45
-0.037342072 -0.28656068 0.8501513 45
-0.032654017 -0.28821969 0.84554595 45
-0.034258027 -0.28705785 0.85162467 45
-0.026179835 -0.2883628 0.83265013 45
-0.02768752 -0.28855649 0.83982503 45
-0.022334645 -0.28842637 0.83283365 45
-0.022155674 -0.28822806 0.84068519 45
-0.027172698 -0.28813165 0.84411997 45
-0.026746495 -0.28830525 0.8506555 45
-0.024156341 -0.28792801 0.84264487 45
-0.022233 -0.2871483 0.85046083 45
-0.038430627 -0.28605062 0.85686189 45
-0.036175512 -0.28622285 0.85976225 45
-0.03120918 -0.29036388 0.85439837 45
-0.031945504 -0.28814501 0.85458124 45
-0.03267578 -0.28730428 0.86181068 45
-0.03637905 -0.28560773 0.86938298 45
-0.032785915 -0.28587583 0.86472189 45
-0.032601725 -0.28577241 0.87049675 45
-0.0280168 -0.28746304 0.85341126 45
-0.027436219 -0.28668019 0.85993892 45
-0.0248471 -0.28672767 0.85298282 45
-0.022401948 -0.28587779 0.85966825 45
-0.027705878 -0.28575107 0.86337918 45
-0.027720073 -0.28542143 0.86881638 45
-0.020378064 -0.28609204 0.86416745 45
-0.022099499 -0.2855095 0.86908478 45
-0.0167142 -0.29035547 0.84064865 45
-0.018971186 -0.28861654 0.83310455 45
-0.017907947 -0.28891811 0.84085929 45
-0.014376224 -0.29024431 0.84032691 45
-0.012191296 -0.28836337 0.84037209 45
-0.017176287 -0.28847867 0.84425658 45
-0.017687144 -0.28731939 0.85006946 45
-0.014436639 -0.2883426 0.8438583 45
-0.012197521 -0.2876285 0.85098404 45
-0.0088573927 -0.28998336 0.83288151 45
-0.0088573927 -0.28882802 0.83288151 45
-0.0073699532 -0.28896582 0.83887148 45
-0.0019351731 -0.28834078 0.83705688 45
-0.0026108623 -0.28779045 0.84126961 45
-0.0074060503 -0.28805918 0.84302866 45
-0.0074710674 -0.28704116 0.85041094 45
-0.0026377668 -0.28759095 0.84954381 45
-0.016174138 -0.28680184 0.85320365 45
-0.017469149 -0.28627321 0.85871804 45
-0.013812862 -0.28691286 0.85353386 45
-0.012725257 -0.2859087 0.86001688 45
-0.017584067 -0.28614303 0.86432153 45
-0.017731857 -0.28582656 0.87158251 45
-0.012810442 -0.2857686 0.87028098 45
-0.0083256112 -0.28584602 0.85743678 45
-0.0068310481 -0.28576481 0.86018372 45
-0.0019724704 -0.28688562 0.8534528 45
-0.0025083078 -0.28618222 0.86010087 45
-0.007180111 -0.28561363 0.86272228 45
-0.0072303652 -0.28556386 0.86863798 45
-0.0024075173 -0.28533027 0.86792731 45
-0.038414963 -0.28507945 0.87454456 45
-0.019006651 -0.28509977 0.87460691 45
-0.014155061 -0.28512338 0.87467933 45
-0.00040777776 -0.28503665 0.88191897 45
-0.038430624 -0.28486201 0.85686189 45
-0.037624307 -0.28422496 0.86021066 45
-0.03887105 -0.28411934 0.86668193 45
-0.036731154 -0.28444666 0.86915159 45
-0.031897444 -0.28426999 0.87107527 45
-0.02273112 -0.28433841 0.86248416 45
-0.027137155 -0.28453749 0.86308807 45
-0.027248891 -0.28356975 0.87027121 45
-0.020378064 -0.28489333 0.86416745 45
-0.023111939 -0.28367099 0.87000501 45
-0.012760215 -0.28431442 0.8624115 45
-0.017584067 -0.28494415 0.86432147 45
-0.017711949 -0.28460515 0.87061971 45
-0.012023321 -0.28455308 0.86991417 45
-0.0081089698 -0.28434715 0.86251068 45
-0.0020729899 -0.28452274 0.86207616 45
-0.0071801106 -0.28441691 0.86272234 45
-0.0067006187 -0.28399438 0.86957574 45
-0.0024140431 -0.28371745 0.87037337 45
-0.037522774 -0.28390807 0.87355316 45
-0.037421998 -0.28350651 0.87970179 45
-0.032720964 -0.28398746 0.87367308 45
-0.032506939 -0.28322276 0.87882119 45
-0.037604235 -0.28243273 0.88397944 45
-0.037981451 -0.2813037 0.88934171 45
-0.038779143 -0.27929235 0.89222729 45
-0.032652758 -0.282038 0.88274378 45
-0.032117192 -0.28120595 0.88929629 45
-0.030937186 -0.27925968 0.89212292 45
-0.027657246 -0.2834878 0.87964356 45
-0.02099639 -0.28385505 0.87326574 45
-0.022390366 -0.28314617 0.88048249 45
-0.027772505 -0.28222668 0.88333434 45
-0.027324622 -0.28133681 0.89058816 45
-0.027637791 -0.27926561 0.89214194 45
-0.023712566 -0.28250322 0.88419992 45
-0.022229223 -0.28196788 0.89025456 45
-0.036343731 -0.28084075 0.89321578 45
-0.037414908 -0.28061506 0.89910907 45
-0.036343731 -0.27960178 0.89321578 45
-0.037414908 -0.27936789 0.89910895 45
-0.033450682 -0.28082058 0.89315146 45
-0.032273889 -0.28055292 0.9001224 45
-0.033450682 -0.27958164 0.89315146 45
-0.032755796 -0.2793484 0.90000308 45
-0.036017939 -0.28018606 0.90578586 45
-0.037854105 -0.27889448 0.90465355 45
-0.03268978 -0.28038022 0.90641338 45
-0.03268978 -0.27912292 0.90641338 45
-0.025181197 -0.28070843 0.89279485 45
-0.02747451 -0.2805776 0.90032291 45
-0.025181197 -0.27947 0.89279485 45
-0.02747451 -0.27932873 0.90032285 45
-0.022289546 -0.28068224 0.8927114 45
-0.02251143 -0.28097332 0.90159267 45
-0.022289546 -0.27944389 0.8927114 45
-0.02251143 -0.27972266 0.90159255 45
-0.027671864 -0.2804946 0.9067834 45
-0.027671864 -0.27923679 0.90678334 45
-0.023064205 -0.28053188 0.90690386 45
-0.021827869 -0.28040415 0.907848 45
-0.023064207 -0.27927387 0.90690386 45
-0.021827869 -0.27914485 0.907848 45
-0.017709451 -0.2840445 0.8739953 45
-0.017701345 -0.28274748 0.88085097 45
-0.012445719 -0.28401503 0.87388259 45
-0.012206032 -0.2835815 0.87993455 45
-0.015105437 -0.28210422 0.8829512 45
-0.01736684 -0.28142688 0.88967836 45
-0.017727971 -0.27952474 0.8916527 45
-0.01224847 -0.28212398 0.88301301 45
-0.012344759 -0.28187987 0.88997662 45
-0.008075499 -0.28385267 0.87325853 45
-0.0073237577 -0.28358805 0.87995493 45
-0.0025620928 -0.2837913 0.88073432 45
-0.0073541487 -0.28235185 0.88372636 45
-0.0074114553 -0.28206411 0.89055836 45
-0.0024552853 -0.28277513 0.88505101 45
-0.0024707632 -0.28203234 0.89045787 45
-0.015281544 -0.28084999 0.89324516 45
-0.017480243 -0.28051686 0.90012795 45
-0.015281544 -0.27961096 0.89324516 45
-0.017480241 -0.27926826 0.90012789 45
-0.012288907 -0.2809529 0.89473385 45
-0.01249967 -0.28084734 0.90118837 45
-0.014455515 -0.27961096 0.89324516 45
-0.01249967 -0.27959725 0.90118837 45
-0.01926259 -0.28014508 0.90565336 45
-0.017361866 -0.27892381 0.90474862 45
-0.017269824 -0.27841192 0.91094381 45
-0.01088164 -0.27999297 0.90516162 45
-0.012744386 -0.27862164 0.90376848 45
-0.012632774 -0.27836019 0.91077453 45
-0.0075681121 -0.28095156 0.8947292 45
-0.0072712856 -0.28102547 0.90233386 45
-0.0053755562 -0.27994242 0.89430404 45
-0.0083433436 -0.27992257 0.90223682 45
-0.0024794934 -0.28092241 0.89347529 45
-0.002464948 -0.2809996 0.90204203 45
-0.0024794934 -0.27968308 0.89347547 45
-0.0016680367 -0.27981317 0.9018842 45
-0.008795076 -0.28019568 0.90581697 45
-0.0062979846 -0.28047022 0.90806192 45
-0.008795076 -0.27893922 0.90581697 45
-0.0082198177 -0.27897206 0.9114027 45
-0.0037568405 -0.28092816 0.90278721 45
-0.0025216942 -0.28073013 0.90890336 45
-0.0025216942 -0.27946937 0.90890336 45
-0.067606792 -0.27676335 0.91384465 45
-0.052434247 -0.27697152 0.91453195 45
-0.048556779 -0.27656248 0.9131816 45
-0.041152701 -0.27725819 0.91380638 45
-0.033392705 -0.28024641 0.91417998 45
-0.02661291 -0.28006917 0.91360182 45
-0.027555853 -0.27799171 0.91435146 45
-0.023660474 -0.28012607 0.91378736 45
-0.022920104 -0.27857989 0.91454303 45
-0.0063358494 -0.28004456 0.91352147 45
-0.0063358494 -0.27877739 0.91352147 45
0.002377314 -0.29581782 0.77879763 45
0.0075891288 -0.29526529 0.78161961 45
0.00072377262 -0.29566112 0.78266752 45
0.0028412421 -0.2942667 0.78005505 45
0.0075891288 -0.29418108 0.78161973 45
0.0022488872 -0.29369658 0.78438109 45
0.0021962537 -0.29394388 0.7916882 45
0.0076077376 -0.29313764 0.78366119 45
0.0076730195 -0.29345801 0.79037958 45
0.013915629 -0.295524 0.79199857 45
0.017023893 -0.29536724 0.79182398 45
0.012308842 -0.29399407 0.79064125 45
0.017315991 -0.29426774 0.79165035 45
0.0047646239 -0.29504019 0.79266638 45
0.002764788 -0.293192 0.79517508 45
